# 3D point list with one line of data per point:
#   POINT3D_ID, X, Y, Z, R, G, B, ERROR, TRACK[] as (IMAGE_ID, POINT2D_IDX)
# Number of points: 516, mean track length: 5.51137
18411 -0.143696 0.15035 -4.12692 49 56 65 0.183731 24 3530 65 3530 64 2287 23 2287
18409 -1.49298 0.125463 -2.75081 82 86 53 0.156168 24 2231 65 2231 64 2222 23 2222
18405 -1.51762 0.055922 -2.00219 235 252 239 0.0951874 24 2168 26 1750 65 2168 66 1750 64 2155 23 2155
18404 0.529512 0.0842887 -2.12676 40 28 26 0.0105745 24 2155 65 2155 64 2136 23 2136
18403 0.536281 0.0862134 -3.28333 183 187 180 0.625711 24 2964 65 2964 64 2127 23 2127 63 3062 22 3062 21 2030 62 2030
18402 -1.28468 0.0168079 -2.65144 24 28 28 0.19396 24 2947 65 2947 64 2109 23 2109 63 2157 22 2157 21 1992 62 1992
18397 0.00284431 -0.230335 -1.66019 18 28 17 0.166893 24 491 26 1490 65 491 66 1490 68 1362 64 1882 23 1882 63 563 22 563 60 471 19 471 58 605 17 605
18396 -1.52882 -0.215596 -2.54602 88 96 73 0.38618 24 2762 65 2762 64 1868 23 1868
18395 -1.34892 -0.209884 -2.71661 228 248 217 0.346981 24 1861 65 1861 64 1848 23 1848 63 513 22 513
18390 0.194645 -0.456089 -1.1725 29 32 13 0.229123 24 1744 26 1340 65 1744 66 1340 64 1750 23 1750 61 263 20 263
18376 -0.948057 0.144889 -4.02758 68 84 97 0.178952 24 3076 65 3076 64 1157 23 1157
18375 -0.973134 0.139092 -4.08651 142 127 116 0.155093 24 3081 65 3081 64 1156 23 1156
18374 -0.880727 0.155438 -3.90557 70 51 36 0.140504 24 1165 65 1165 64 1149 23 1149
18370 -0.432628 0.145038 -4.01233 153 147 136 0.42172 24 3063 65 3063 64 1114 23 1114
18361 -1.59496 0.0854422 -1.36298 255 249 241 0.11043 24 2192 26 1764 65 2192 66 1764 64 984 23 984 63 1031 22 1031
18349 -1.01385 -0.0264754 -4.02324 31 35 18 0.0721789 24 1903 65 1903 64 607 23 607
18337 0.133921 -0.344197 -2.77748 42 51 58 0.0361547 24 74 65 74 64 159 23 159
18294 -0.360989 0.13438 -3.51489 143 143 128 0.479975 68 3237 24 3488 65 3488 64 2956 23 2956 63 2293 22 2293 21 1013 62 1013
18258 -0.34016 0.14622 -4.03071 138 134 125 0.00781816 26 3461 66 3461 24 3827 65 3827
18255 -1.53234 0.0529354 -2.78855 26 26 26 0.188963 26 3072 66 3072 24 3782 65 3782
18254 0.217082 -0.0469801 -1.50816 90 92 93 0.338779 68 2809 24 3741 65 3741
18252 -1.51899 -0.089586 -2.78212 14 13 18 0.860926 26 2997 66 2997 24 3727 65 3727 64 3617 23 3617
18234 -0.955847 0.138531 -3.89922 67 87 78 0.635839 26 2863 66 2863 24 3057 65 3057 64 1111 23 1111
18226 -1.57889 0.0642336 -1.75566 32 28 42 0.375124 26 2788 66 2788 68 2606 24 2985 69 3066 65 2985 64 2926 23 2926 63 2230 22 2230
18187 -0.00232722 0.0907095 -2.9775 11 21 32 0.671793 26 2373 66 2373 24 2174 65 2174 64 2159 23 2159 63 983 22 983
18168 -0.354887 0.150154 -4.25608 82 82 74 0.168412 26 3151 66 3151 24 1233 65 1233
18155 -1.01084 0.135232 -3.47885 173 169 159 0.118016 26 1843 66 1843 24 1050 65 1050
18154 -1.01084 0.135232 -3.47885 173 169 159 0.118016 26 1842 66 1842 24 1049 65 1049
18153 -2.93849 0.5095 4.12301 252 252 233 0.151081 90 1151 24 1046 65 1046
18152 -2.93849 0.5095 4.12301 252 252 233 0.151081 90 1152 24 1045 65 1045
18151 -0.206295 0.0990054 -4.32757 59 63 63 0.0236139 26 2846 66 2846 24 1028 65 1028
18150 -0.324636 0.132863 -3.48175 140 118 108 0.594684 68 2893 24 1022 26 2416 66 2416 65 1022 64 1035 23 1035 63 1096 22 1096
18149 -0.263114 0.0883332 -3.92145 52 58 65 0.0282333 26 1773 66 1773 24 962 65 962
18148 -1.53196 0.0763367 -1.79406 96 118 132 0.0457418 68 1666 24 951 65 951
18147 -1.54411 0.0403417 -1.95121 58 79 92 0.480373 68 788 24 899 69 1746 65 899
18145 -1.66891 0.031824 -1.4129 41 64 76 0.211167 69 2385 24 892 65 892
18144 -1.67259 0.0255446 -1.22603 229 254 239 0.259303 68 1625 24 884 69 1730 65 884 64 918 23 918
18143 0.441734 0.0838956 -3.20474 12 20 15 0.418996 26 745 66 745 24 879 65 879
18142 0.657483 0.0742353 -2.33948 13 12 7 0.179344 26 1693 66 1693 24 864 65 864
18141 -1.47494 -0.00328117 -2.99835 58 60 55 0.0821668 26 1668 66 1668 24 779 65 779
18140 -3.45506 -0.25543 3.61232 35 44 50 0.146776 68 636 70 666 72 1809 24 762 65 762 64 791 23 791 63 809 22 809
18139 -1.47341 -0.0111862 -3.01191 141 101 100 0.687695 68 1571 24 752 65 752
18138 -1.47341 -0.0111862 -3.01191 141 101 100 0.687695 68 1570 24 751 65 751
18137 0.196312 -0.0136323 -1.43601 81 96 96 0.168069 68 1534 24 750 65 750
18136 2.02424 -0.0478366 -0.0791998 29 31 28 0.0796814 68 1493 69 1632 24 709 65 709
18135 -1.46644 -0.0473811 -3.01123 109 120 109 0.0641722 26 1599 66 1599 24 667 65 667
18134 -1.25959 -0.0484618 -3.26971 107 158 159 0.177963 26 1576 66 1576 24 628 65 628
18133 -1.2216 -0.136519 -2.65862 230 230 210 0.068114 69 1489 24 560 65 560
18132 0.684353 -0.321516 0.114728 23 35 21 0.186953 68 1411 24 541 65 541 64 598 23 598 63 599 22 599 21 556 62 556
18131 0.724622 -0.189382 -1.67282 126 123 156 0.147789 26 367 66 367 68 1364 24 510 65 510
18130 0.724622 -0.189382 -1.67282 126 123 156 0.147789 26 368 66 368 68 1365 24 509 65 509
18129 -0.492924 -0.892807 4.95193 89 112 92 0.244066 75 226 24 496 65 496
18128 0.65702 -0.188637 -1.9993 58 40 76 0.192677 26 1464 66 1464 24 466 65 466 64 530 23 530
18127 0.0390849 -0.261494 -1.56708 76 88 42 0.15036 26 338 66 338 68 1346 24 460 65 460 64 519 23 519
18126 -1.26712 -0.197685 -2.62625 232 255 255 0.105824 26 335 66 335 24 452 65 452
18125 -1.52226 -0.209811 -2.591 59 61 37 0.0261826 26 1475 66 1475 24 450 65 450
18124 -1.26993 -0.208054 -2.78768 34 40 34 0.322741 26 1426 66 1426 24 402 65 402
18123 -1.53585 -0.258911 -2.71072 120 176 147 0.158019 70 2237 24 328 65 328
18120 0.330391 -0.392426 -1.98226 72 93 107 0.0735626 26 97 66 97 24 177 65 177
18119 0.124338 -0.337331 -2.76209 221 255 255 0.102458 26 13 66 13 24 84 65 84
18105 0.516815 -0.226868 -2.11604 230 255 255 0.2297 26 263 66 263 24 390 65 390
18103 2.17519 0.494 1.92669 13 8 4 1.84512 26 3091 77 3030 66 3091
18096 -0.638342 0.159416 -3.32146 106 103 96 2.0377 26 943 71 2975 66 943
18077 -1.42406 -0.254034 -2.70291 243 255 255 1.19562 69 3546 26 3569 66 3569
18052 -0.267599 0.131533 -3.92562 31 12 16 0.370535 68 3287 26 3457 66 3457 24 4121 65 4121 64 3700 23 3700 63 3596 22 3596 21 3277 62 3277 61 2594 20 2594 60 2816 19 2816 59 2275 18 2275 58 2289 17 2289 16 920 57 920 15 926 55 926
18046 11.7004 -0.0971654 23.3999 6 11 5 0.112407 2 2762 26 3358 66 3358
18045 -0.00628318 -0.575298 -1.02822 79 70 37 0.248506 68 3091 69 3315 26 3324 66 3324 24 4067 70 3622 65 4067 64 3803 23 3803
18020 0.430966 -0.306852 -2.02735 18 33 43 0.429539 68 2956 26 2944 66 2944
18000 -0.834068 0.333533 -2.99196 109 109 101 0.491883 68 2698 26 2498 66 2498
17963 0.391978 -0.289293 -2.08797 221 242 246 0.285052 68 1958 26 2113 66 2113
17957 0.103141 -0.556646 -1.03579 244 251 243 0.503645 68 1933 69 2049 26 2069 66 2069 24 2658 65 2658 64 2654 23 2654 63 1843 22 1843 21 1672 62 1672
17931 -1.45529 -0.135626 -2.71883 16 18 13 0.0583509 68 1421 26 1525 66 1525
17919 0.44899 -0.279019 -2.07487 248 251 240 0.147035 68 1967 26 1363 66 1363
17918 0.346286 -0.299531 -2.06669 254 255 255 0.0791616 68 1956 26 1344 66 1344 24 1754 65 1754
17915 0.267956 -0.51857 -1.03997 54 60 27 0.0876481 68 1211 69 1296 26 1314 66 1314
17914 0.274435 -0.547148 -0.984245 197 201 174 0.118506 69 2060 26 1308 70 2235 66 1308
17913 0.265087 -0.587839 -1.00461 245 247 184 0.251616 69 2039 70 2222 26 1286 66 1286 24 1677 65 1677
17912 0.0166446 -0.606752 -1.01769 239 252 248 0.0396791 70 2217 26 1283 66 1283
17911 -6.76374 3.16758 10.9504 231 252 250 0.713772 79 962 26 1156 66 1156
17910 -0.49344 0.144814 -4.00885 228 236 223 0.0592663 68 2701 26 1069 66 1069
17909 -0.49344 0.144814 -4.00885 228 236 223 0.0592663 68 2702 26 1068 66 1068
17908 -0.325123 0.144608 -3.96409 108 105 100 0.163821 68 2347 26 1046 66 1046
17907 -0.257221 0.144205 -3.94505 17 17 15 0.0643117 68 2341 26 1028 66 1028
17906 -0.27147 0.142386 -3.94604 55 56 58 0.164594 68 2339 26 1025 66 1025
17905 -1.40616 0.196298 -3.14339 140 124 111 0.706799 68 1023 26 1019 66 1019
17904 -0.335372 0.143196 -3.83275 138 142 145 0.0187703 68 1818 26 991 66 991
17903 -0.13732 0.144843 -3.83584 17 17 17 0.134001 68 2671 26 981 66 981
17902 -0.953559 0.155464 -3.44978 128 122 114 0.566176 68 1793 26 964 66 964
17901 -0.127886 0.139061 -3.76635 34 37 38 0.0211449 68 1785 26 940 66 940
17900 -1.02252 0.134151 -3.4912 138 145 131 0.126226 68 1777 26 938 66 938
17899 -1.09366 0.141231 -3.3169 146 152 142 0.231689 68 1761 26 930 66 930
17898 -1.16417 0.12777 -3.46364 22 25 11 0.0347438 68 1767 26 929 66 929
17897 -0.323082 0.138945 -3.61745 123 116 110 0.0073552 68 2293 26 925 66 925
17896 -1.17999 0.140983 -3.01541 152 157 147 0.127312 68 1733 26 911 66 911
17895 -0.50849 0.134642 -3.34031 91 90 84 0.244398 68 914 69 1884 26 901 66 901
17894 -1.25902 0.134681 -2.89139 113 96 81 0.312369 71 2945 26 900 66 900
17893 -1.3833 0.159039 -1.90674 112 113 107 0.30492 69 2468 26 889 66 889
17892 -1.56666 0.117033 -2.60441 21 15 17 0.226923 68 1703 26 886 66 886 24 1004 65 1004
17891 -1.27189 0.099052 -2.70248 27 28 14 0.0875199 68 1691 26 863 66 863
17890 -1.32189 0.107036 -1.28262 181 178 164 0.0579125 68 1673 72 2737 26 841 66 841
17889 -1.84244 0.0745988 -0.90888 108 125 135 1.16204 74 2222 26 831 73 1776 66 831
17888 -1.57555 0.0545861 -1.77087 45 48 64 0.086716 69 1763 26 811 66 811
17887 -1.66736 0.0409376 -1.19507 156 203 225 0.0665181 68 789 69 1747 26 785 66 785
17884 -1.47021 0.0204558 -2.9811 74 99 71 0.134315 68 1619 26 746 66 746 24 845 65 845
17883 0.554749 0.08413 -3.05037 143 144 127 0.499908 68 1597 26 728 66 728
17882 0.996547 0.0318014 -0.698118 79 92 56 1.10921 74 472 26 667 68 1565 69 625 66 667
17879 -1.43372 -0.141296 0.122076 79 87 89 0.234817 70 615 71 566 72 432 73 386 26 600 66 600
17878 -6.48281 -1.13197 13.1939 235 252 220 0.430885 74 1386 75 1422 76 1376 77 316 79 1239 80 1309 93 2883 26 534 68 1479 73 1560 70 1706 92 2882 94 2049 66 534 24 640 65 640
17876 -1.10563 -0.0289023 -3.45551 144 167 141 0.163124 68 2122 26 515 66 515
17875 0.156345 -0.12351 -1.5471 94 84 52 0.09988 68 471 69 1544 26 490 66 490
17874 -0.44074 -0.754276 4.54955 44 50 37 1.07595 68 417 69 410 26 433 70 1648 71 1653 72 1698 74 1346 1 204 75 250 66 433
17873 -1.48409 -0.148063 -2.70515 36 38 19 0.0526016 68 399 26 431 66 431
17872 -1.23819 -0.140968 -2.6781 206 239 254 0.164892 68 394 26 428 66 428 24 547 65 547
17870 -0.482269 -0.826595 4.70783 42 48 29 0.404905 76 208 26 411 66 411
17868 -1.55162 -0.204201 -2.72853 18 21 14 0.257035 68 308 26 325 66 325
17867 -1.53247 -0.236618 -2.6177 203 223 234 0.125151 68 270 26 290 66 290
17865 -1.54281 -0.240507 -2.7024 69 92 66 0.182387 69 1355 26 266 66 266
17859 0.289701 -0.52529 -1.15106 62 86 32 0.0765779 68 1202 69 1282 26 110 66 110
17858 0.342709 -0.375482 -2.06475 40 49 48 0.137256 68 46 26 98 66 98
17842 -1.96139 0.101433 -0.699618 19 24 22 1.03557 79 2812 68 1670
17840 1.16522 0.0401266 -0.0394081 30 25 3 2.23812 69 1700 77 2153 68 1576 70 2501
17701 -0.315225 0.133704 -3.54238 23 24 28 0.605615 69 3517 68 3281 26 3451 66 3451 24 4116 65 4116 64 4028 23 4028 63 4139 22 4139 21 3599 62 3599 61 3044 20 3044 60 3260 19 3260 59 3054 18 3054 58 3183 17 3183 16 2266 57 2266
17697 -2.81237 -0.272986 1.80216 43 45 31 1.40473 76 2493 69 2746 75 2161
17683 0.0718661 -0.268146 -1.66901 52 53 20 0.679542 71 3504 69 3400 68 3104
17680 -1.48556 -0.062916 -2.80183 254 255 246 0.458214 70 3636 69 3346 68 3120 26 3213 66 3213 64 3301 23 3301
17657 -1.60573 -0.294104 -2.67588 53 64 55 0.193636 70 3368 69 2939
17627 -1.27114 -0.178488 -2.6115 64 66 80 0.122656 70 2329 69 2184 68 1373 26 1496 66 1496
17626 -1.25539 -0.176879 -2.7 85 71 26 0.61401 70 3190 69 2171 68 1355
17621 -1.59412 -0.250665 -2.74031 50 64 20 0.128449 70 2768 69 2087 26 1390 66 1390
17620 -1.53439 -0.258713 -2.69532 178 252 255 0.231598 70 2766 69 2084 68 1278
17619 -0.362303 0.135449 -3.27916 122 113 107 0.345156 70 2659 69 1877 68 906
17618 -1.90738 0.224635 -1.3476 94 98 84 0.607307 71 2931 69 1861
17617 -1.47967 0.105436 -2.81344 58 66 74 0.0955409 70 2625 69 1844 68 894
17615 -1.29403 0.105797 -2.70188 65 59 38 0.346937 70 1977 69 1833 68 882 26 868 66 868 24 985 65 985
17614 -0.361695 0.107875 -2.93651 60 69 68 0.342193 70 2622 71 2921 69 1827 72 3446
17613 -1.47927 0.0903143 -2.80385 46 64 64 0.136078 70 3022 69 1826 68 1693
17612 -1.76348 0.0776004 -1.67071 253 248 246 0.972449 70 2582 69 1789 71 2510
17611 -1.48521 0.0217855 -2.80761 130 138 125 0.148374 70 2951 69 1709 68 748 24 854 65 854 64 884 23 884
17610 -3.89895 -0.294258 3.77207 23 28 32 0.560679 73 2268 69 1650 71 2396 72 2608 74 2121 70 2459 77 1455 76 1439 68 2175 26 1656 66 1656
17607 -1.48651 -0.0781316 -2.87341 201 168 134 0.189279 70 2373 69 1534 68 503
17606 -2.5172 -0.208952 -1.92674 223 188 186 0.234544 70 2372 69 1527
17605 -1.48253 -0.128298 -2.7535 11 12 6 0.428548 70 1593 69 1498 68 1432 26 456 66 456
17604 -1.48459 -0.131763 -2.77748 13 21 8 0.320264 70 2855 69 1492 68 1426 26 1524 66 1524 64 623 23 623
17601 -1.52617 -0.204211 -2.72604 58 65 37 0.176614 70 2292 69 1392 68 302
17598 -1.60534 -0.240938 -2.75131 43 50 29 0.407216 70 1439 69 1343 68 1300
17596 -1.63191 -0.271574 -2.76753 144 217 212 0.18622 70 1396 69 1290 68 154
17595 -0.686055 0.138962 -3.44628 110 106 100 0.382622 71 2980 69 1006
17592 -1.4794 0.0936733 -2.81566 119 111 108 0.107782 70 1973 69 884 68 880
17591 -0.385531 0.112242 -2.71167 119 119 109 0.323694 70 1008 71 1953 69 869
17590 -0.540009 0.109398 -1.66915 233 232 219 0.0604624 70 936 73 1822 69 816
17589 -0.539585 0.109644 -1.66959 233 232 219 0.196188 70 935 71 1918 72 1998 73 1821 69 815
17588 0.0719441 0.0891151 -2.31072 200 184 160 0.362953 71 853 69 777
17587 -0.271643 0.0692553 -2.08321 37 45 52 0.595063 71 1854 69 727 70 1890
17586 1.00199 0.0464533 -0.923848 98 104 59 0.165709 71 686 69 637
17585 -1.44289 -0.127654 0.166216 41 36 39 0.208951 70 635 72 460 74 1430 69 562 73 401 75 1474 76 1421 26 607 66 607
17582 -1.4786 -0.0501066 -2.91637 29 62 79 0.166261 70 2391 69 478 68 539
17581 -0.517891 -0.814508 4.68264 77 86 59 0.253177 70 1643 71 405 73 1499 74 1339 76 1332 77 1329 69 400 80 1238 81 1159 83 1888 84 1332 86 2209 68 402 26 415 66 415 24 519 65 519 64 1892 23 1892 63 567 22 567 21 513 62 513 61 405 20 405 60 446 19 446 59 523 18 523 58 545 17 545
17577 -0.094606 -0.613064 0.607877 75 65 69 0.119233 70 296 71 264 72 166 73 112 69 267 68 262
17576 -1.23909 -0.371835 -1.82391 238 247 255 0.14996 71 1469 69 165
17575 0.401296 -0.281251 -2.07565 45 41 22 0.178575 71 1423 69 122 68 145
17574 -1.30739 -0.259576 -2.6735 191 251 241 0.221705 70 1412 69 91 68 179
17552 -0.0142209 0.0612248 -3.09391 47 21 36 1.65006 71 2855 70 1827
17539 0.112019 -0.388274 -1.37176 20 21 23 1.12808 71 3353 70 3520 69 3325 68 3099 26 3331 66 3331
17537 -1.51602 0.0766855 -1.76515 255 255 250 0.364291 71 3400 70 3463 69 3067 68 2866 26 2789 66 2789 24 3466 65 3466 64 2933 23 2933 63 3092 22 3092
17505 0.300375 -0.49915 -1.15257 63 67 28 0.252518 71 2191 70 2239 69 2066 68 1944
17492 0.329172 -0.300097 -2.08455 46 42 84 0.124777 71 2659 70 1427 68 133 26 167 66 167
17475 0.350643 -0.276596 -2.07313 129 120 151 0.0589192 71 96 70 143
17438 -0.531604 -0.0842323 1.00646 85 68 66 0.409819 72 3563 82 2771 84 3095 71 3272 1 2790 76 2980 77 3084 81 2672 83 2934 77 2957 26 3034 66 3034 24 3976 65 3976 64 3856 23 3856 63 4110 22 4110 21 3530 62 3530 60 3567 19 3567
17422 -1.22999 -0.376774 -1.85364 53 57 70 0.0471177 72 3281 71 2689 70 2797
17414 -1.22766 -0.114059 -2.66806 19 30 40 0.0448635 72 2481 71 2309 70 1622
17410 0.400009 -0.457481 -1.06613 233 253 247 0.680482 72 2409 71 2212 68 1961
17405 -0.522896 0.121902 -2.47855 121 130 124 0.220756 73 3224 71 1955
17400 0.0808245 0.0524896 -2.69238 72 98 75 0.393957 72 3096 71 1799
17392 2.22666 -0.650462 1.07566 64 83 67 0.28097 72 1592 73 1395 71 1538
17388 -1.34259 -0.360766 -1.8577 243 249 254 0.232753 72 2412 71 1479 70 1497 69 188 24 337 65 337
17387 -1.37488 -0.369027 -1.82841 216 255 255 0.246704 72 1538 71 1477 69 181 61 300 20 300
17383 -0.413314 0.130312 -3.04407 96 96 86 0.217062 72 2870 71 1119 70 1080
17382 -0.402418 0.128912 -2.99618 77 63 55 0.187848 72 2171 71 1099
17381 -0.402418 0.128912 -2.99618 77 63 55 0.187848 72 2170 71 1098
17380 -0.632968 0.129054 -2.94088 222 224 185 0.034886 72 2162 71 1093
17379 -0.632968 0.129054 -2.94088 222 224 185 0.034886 72 2161 71 1092
17378 -1.25939 0.13262 -2.50836 117 112 106 0.104809 72 2106 71 1053
17377 -0.390387 0.11929 -2.72417 146 136 127 0.0710703 72 2089 71 1022 70 1017
17376 -0.286613 0.163281 -2.08558 0 0 0 0.231203 72 2084 76 2346
17375 -1.67609 0.0650894 -1.49051 0 0 0 0.0403374 75 701 76 1648
17374 -1.58817 0.082645 -2.07914 59 68 67 1.36734 73 1830 71 907 70 938
17373 -1.5985 0.0608445 -1.94626 136 143 135 0.254964 72 777 71 850
17372 -1.48145 0.0893398 0.166396 67 61 58 0.0749762 73 1767 74 1611 75 1656 71 841 70 902
17366 -0.0950542 -0.609743 0.590812 66 49 59 0.134905 75 1296 71 265 74 106 70 297
17364 0.506381 -0.254827 -2.05301 230 242 249 0.418464 72 1510 71 126 69 1371
17357 0.232803 -0.296179 -1.4706 28 35 13 1.84045 72 3843 71 3586
17350 -3.34202 -0.712094 6.95712 242 253 252 0.901194 90 2599 72 1731 56 3055 95 3440 21 632 62 632
17348 -0.363711 0.0905936 -2.92902 59 72 70 0.842411 73 878 72 891
17345 -2.52799 -0.251706 2.5777 106 119 128 1.94124 90 3244 72 451 71 1744
17339 -0.36988 0.127817 -2.9378 22 25 27 0.902217 73 3412 72 3706 71 3167 70 3044 69 2469 68 1694 26 870 66 870
17338 -0.36988 0.127817 -2.9378 22 25 27 0.902217 73 3411 72 3705 71 3166 70 3045 69 2470 68 1695 26 869 66 869
17337 -1.59654 0.0973557 -1.43874 23 20 26 0.411203 73 3361 72 3691 71 3300 70 3467 69 3260 68 2875 26 3079 66 3079 24 3791 65 3791 64 3687 23 3687 63 3909 22 3909 60 3236 19 3236 59 3565 18 3565 58 3156 17 3156 16 3129 57 3129
17335 -1.23029 -0.108582 -2.64449 54 67 71 0.290243 73 3253 72 3524 71 2751
17330 2.14957 -0.453328 1.18033 39 46 30 0.835713 74 2923 72 3327 73 3135
17329 2.0676 -0.48574 1.37393 238 248 253 0.636294 74 2922 72 3326 73 2910
17328 2.12908 -0.663652 1.05827 26 37 47 0.168415 73 2889 74 2906 72 3297 75 3037
17327 -0.616821 0.128919 -3.06648 252 254 246 0.429019 73 3245 72 3215 71 2031
17326 -0.616834 0.128958 -3.06641 252 254 246 0.395099 73 3246 72 3214 71 2030 70 1083
17323 -1.60347 0.0407118 -1.7562 13 11 16 0.518972 73 2680 72 3121 71 2866 70 2973 69 2395
17322 -2.77406 -0.0200369 2.45611 21 21 19 0.323274 76 2557 72 3109 70 2532 71 2454
17292 -1.52798 0.0859948 -1.79073 80 97 100 0.298286 73 2377 72 1997 71 1915
17266 -3.22219 -0.116123 2.06237 20 23 29 0.213358 1 407 80 446 72 564
17240 -0.0443698 -0.538578 0.572794 24 22 18 0.790165 76 2762 73 2586 75 2551 77 2715 79 2457 72 3008 71 2737 70 2343
17236 -0.429687 0.0944294 -2.48511 172 173 175 0.257943 76 2342 73 785
17229 -1.57112 0.106371 -1.7003 16 14 17 1.09954 75 3295 73 3364 72 3747 71 3471 70 3588 69 3266
17207 -2.98688 -0.126435 2.06679 91 101 111 0.268627 74 2795 76 2808 73 2979 77 2782
17195 -1.38875 0.0846908 -2.23038 61 87 104 1.16046 74 2617 73 2728 72 2752
17189 2.04262 -0.635374 1.12722 246 249 238 0.260569 74 2446 75 2542 73 2583 76 1941 77 1246 72 2459 71 2274
17161 -0.447384 0.126216 -2.80488 41 50 57 0.138431 74 2682 73 976
17132 0.0929556 -0.899991 4.47836 254 254 253 1.22178 84 3203 74 2461 82 2856 83 3011 81 2793
17129 -1.54175 -0.0858778 -0.640677 105 125 134 0.862385 75 1481 76 2064 74 1433
17128 -0.128587 -0.398473 0.0124081 252 253 239 1.47217 77 133 74 1293 72 1653
17127 -0.388623 0.103577 -2.728 26 13 5 0.832213 75 3021 74 892
17126 -0.12555 0.0456248 -2.42078 26 38 29 1.85825 75 1583 74 455
17125 -0.406142 0.0937353 -1.20052 127 146 153 0.231699 76 3201 74 3115
17124 -0.567671 0.125361 -2.59008 255 250 253 0.509889 75 3247 74 3023 72 2794
17123 -0.427013 0.120643 -2.48578 24 22 25 0.236866 75 3241 74 3018 73 3056 72 3165 71 2546 70 1969 69 1824 68 856 26 848 66 848
17122 -1.66496 0.0622089 -1.00957 246 255 255 0.265529 75 3094 74 2991 73 3199 72 3394 71 3122 70 2986
17121 1.71225 -0.215175 0.391069 16 20 19 0.303749 75 3058 74 2940 73 3141
17120 1.95402 -0.560761 1.14705 249 254 255 0.811337 75 3045 76 2947 74 2912 72 3006
17119 2.13592 -0.599608 1.36349 79 101 109 0.952019 75 3044 76 2946 74 2911 73 3255
17118 -0.078575 -0.73935 0.489249 39 61 49 0.364196 75 3035 76 2936 74 2904 73 2878 72 3289 71 3019 70 3175 69 2653 68 2430 26 2599 66 2599 24 2684 65 2684 64 3197 23 3197 63 2836 22 2836 61 2292 20 2292 60 1639 19 1639 59 1873 18 1873
17116 -0.389395 0.069423 -2.73064 66 73 76 0.235701 75 3184 74 2840
17115 -1.61198 0.0563634 -1.78203 12 12 12 0.131693 75 3095 74 2830 73 3012
17113 -2.66896 -0.118342 1.79371 68 87 94 0.568256 79 2528 74 2792
17111 0.0679197 -0.244696 -1.62188 18 23 12 0.231963 75 2853 74 2729 73 2578 72 2998 71 2283 70 2341 69 1456 68 1352 26 1477 66 1477 24 477 65 477 64 537 23 537
17110 -0.0884627 -0.696392 0.526976 252 250 246 0.188876 75 2856 76 2747 74 2727 73 2574 71 2712 70 2816 69 2664 68 2438 26 2129 66 2129
17109 -0.513289 0.124962 -2.53507 244 254 251 0.0660242 75 3006 74 2652
17105 -1.40976 0.110484 -1.41011 49 49 35 0.280141 75 2728 74 2605 73 2394 72 2750 71 1927 70 1953 69 847 68 854
17102 -1.58679 0.0445417 -1.80827 49 66 73 1.16243 75 2686 74 2568 73 2338 72 2698 71 1863
17101 -1.69852 0.00847419 -1.16003 24 24 24 0.387465 75 2654 74 2545 71 1815 69 671 70 1844
17100 -5.33809 -0.671517 4.67106 33 45 40 0.35466 1 229 74 2493 79 221 80 248
17098 0.0142138 -0.723991 0.536686 176 218 238 0.237823 75 2524 76 2403 74 2436 73 2104 72 2427 71 1500 69 1360 70 199 68 1253 24 1743 65 1743
17095 -0.582859 0.124014 -2.59642 237 239 214 0.0708781 75 3017 74 2342 73 901
17093 -1.44861 0.138131 -2.08681 165 147 130 1.3899 74 2317 73 1888 72 924
17092 -0.421467 0.104866 -2.4842 73 77 76 0.422939 75 2991 74 2310 72 880
17091 -1.48254 0.121345 -1.94062 135 115 108 0.135588 75 2747 74 2296
17090 -1.53126 0.0946182 -1.71172 28 39 40 0.432295 75 2362 74 2260 72 2006
17069 -1.46372 0.103467 -1.20962 133 129 104 0.370841 75 2349 74 1659 73 735 72 836
16964 -1.63352 0.0954415 -1.48603 70 90 89 0.10278 77 2604 75 2356
16962 -0.661267 0.10268 -1.25784 127 126 119 1.15725 77 2842 79 2741 1 2733 75 2339 80 2848 81 2734
16959 -0.515794 0.101725 -0.842953 114 113 114 0.618378 79 2592 75 2321 1 2581 76 2618
16941 -1.36776 0.0887954 -1.19204 58 56 41 0.519429 76 2234 75 1697 74 1640
16925 -0.420275 0.115946 -2.47832 181 161 127 0.357462 76 2356 75 928
16924 -0.420275 0.115946 -2.47832 181 161 127 0.357462 76 2355 75 927
16919 -1.42202 0.109669 -1.27565 68 66 47 0.118566 1 2041 79 2401 75 765
16883 -1.59267 0.118039 -1.39624 136 129 123 0.194802 77 3015 76 3033
16882 -1.70082 0.0500059 -1.03398 21 19 17 0.373846 77 3101 76 3015
16881 -1.70202 0.05006 -1.03184 21 19 17 0.553126 77 3102 76 3014 75 3091 74 2826 73 2691 72 3123
16880 -0.236122 0.0539063 0.502205 60 69 76 0.300446 80 2841 76 3005
16878 -0.0953667 -0.587275 0.559009 28 28 15 0.40053 77 2910 79 2649 76 2943 1 2639
16863 -1.5718 0.0900854 -1.4563 37 37 47 0.0779146 77 2843 76 2624
16862 -0.519396 0.0963431 -1.00298 114 114 109 0.201105 1 2580 79 2591 81 2623 76 2617
16861 -0.395121 0.0940026 -0.680694 192 185 180 0.302739 77 2580 79 2580 76 2609 75 2312
16860 -1.61999 0.0624771 -1.46497 23 12 28 0.125161 77 2575 76 2602
16859 -2.70979 0.0558752 0.0668043 86 98 99 0.298087 1 2333 76 2580
16858 -1.69697 0.0395658 -1.27649 136 171 193 0.0252273 77 2979 76 2576
16855 -0.00327604 -0.00932611 -1.90745 53 61 66 0.19223 77 2750 76 2494 75 2155 74 1409 72 441 70 636
16854 -0.189326 -0.41831 0.390701 27 33 57 0.292994 1 2168 77 2401 79 2463 76 2435 75 2079 74 2011 73 2158 72 2512
16853 -0.409066 0.11153 -1.85772 124 121 114 0.0664609 77 2632 76 2298
16852 -1.26217 0.120373 -1.66829 132 124 109 0.269511 77 2630 76 2294 75 821
16851 -0.53267 0.108564 -1.75745 247 254 253 0.0460906 1 2744 79 2615 76 2288
16850 -0.53267 0.108564 -1.75745 247 254 253 0.0460906 1 2745 79 2616 76 2287
16848 -1.5636 0.0889864 -1.45051 241 254 255 0.191197 77 2598 76 2248 74 1652
16846 -1.56966 0.0873904 -1.41037 246 254 255 0.162798 77 2596 76 2244
16845 -3.08516 0.0397648 0.5079 126 178 217 0.513974 79 1996 76 2180
16841 -5.46481 -0.387014 3.7748 92 113 130 0.146098 1 2234 77 2477 79 2261 76 2049 80 2553
16839 -0.00138057 -0.00914714 -1.91588 62 64 63 0.116312 77 2454 76 2037 74 1405 75 2156
16835 0.0621515 -0.565146 0.474212 22 34 15 0.213031 1 1713 77 1913 76 1940 79 1089
16830 -1.64316 0.130653 -1.28321 92 91 91 0.882981 79 2059 76 1716
16829 -1.29205 0.121757 -1.45357 88 66 52 0.187091 77 2252 76 1710 75 799
16828 -0.401489 0.106626 -1.59784 66 79 98 0.0757221 77 1726 76 1699 75 768
16827 -1.66309 0.0649407 -1.49052 45 44 49 0.121865 77 1673 76 1650 75 697 74 636
16824 -1.70028 0.035608 -1.24107 96 127 130 0.0961181 77 2146 76 1571 75 1615 74 569
16823 -1.64895 0.0123354 -1.40144 118 153 186 0.0226123 77 1532 76 1513
16822 -1.53111 -0.0811908 -0.560794 104 124 127 1.66987 77 2021 79 1878 76 1424 1 2241 75 1477
16819 0.0748753 -0.670804 0.50437 253 232 243 0.0489977 77 1194 79 1728 76 1232
16816 -0.327547 0.0967806 -2.02406 33 38 42 0.107608 77 2269 76 807
16815 -0.327547 0.0967806 -2.02406 33 38 42 0.107608 77 2268 76 806
16814 -1.13891 0.11128 -1.78758 100 106 94 0.0452886 1 1592 76 803
16812 -1.50486 0.114959 -1.36551 94 96 85 0.159837 1 1553 77 806 76 763
16803 -2.58654 0.0998201 0.000525582 225 250 235 0.11973 1 1499 76 680
16793 -5.50069 -0.366181 3.85901 149 170 193 0.132031 1 337 77 377 76 340
16787 -0.13787 -0.456737 0.475765 26 32 23 0.465718 80 110 76 147 75 1342 1 1744 81 1689 74 161
16760 -1.45573 0.10793 -0.136069 115 113 101 1.31299 1 2983 77 3271 79 2968 80 3002
16708 -1.8531 0.0567767 -0.596712 42 58 75 0.221898 1 1447 79 1462 77 1631 76 1611
16701 -8.53592 -1.10336 11.5035 51 71 53 0.234869 1 1232 81 1767 82 1754 83 1926 77 1390 75 1420 73 330
16700 -8.84808 -1.12663 11.6916 227 254 237 0.394924 1 1806 79 1839 82 1753 84 1385 77 1389 81 299 83 303 85 291 76 1373 75 1419
16697 -1.42971 -0.38917 -0.537545 255 254 255 0.353404 79 1081 77 1242 75 146
16696 0.0825703 -0.55749 0.427019 30 39 48 0.0890551 1 1087 79 1087 80 1126 77 1236
16689 -0.530163 0.112011 -1.77456 137 118 102 0.315534 79 2073 77 866 76 805
16688 -1.3024 0.116774 -1.32655 82 74 59 0.349348 1 754 79 759 77 804 76 761 75 779
16639 -0.695083 0.112316 -1.62314 126 122 116 0.327988 1 2603 80 2779 79 2612
16637 -1.82327 0.0952056 -0.453226 105 93 80 0.954845 80 2754 79 2581 1 2569
16603 -1.27994 0.121018 -1.54803 55 40 26 0.144791 1 1585 79 1592 77 846 75 810 76 793 74 746
16602 -1.29177 0.118497 -1.53897 116 123 116 0.178176 1 787 79 1589 77 841
16601 -0.302042 0.0850795 -1.94598 30 32 31 0.221619 1 2060 79 1584
16600 -0.463622 0.107773 -1.58446 41 48 41 0.163388 1 1559 80 2095 79 1569
16599 -1.54031 0.0931981 -0.576272 116 113 92 0.177216 1 1503 80 1584 79 1515
16598 -1.5272 0.0626697 -0.584828 29 32 33 0.288167 1 1456 80 1548 79 1471
16597 -0.606339 0.0486894 1.49025 141 139 126 0.47391 1 1407 82 1378 87 3412 79 1426
16596 -0.292851 0.0330327 -1.89089 55 60 62 0.0900866 1 1356 79 1390 77 547
16595 -3.05466 -0.184909 2.72358 18 18 23 1.16779 1 1869 84 2537 79 1308 80 1941 81 1822
16594 -3.60935 -0.432636 6.07473 37 67 57 1.61055 89 397 79 1283 77 1439 76 353 75 394
16593 -3.52778 -0.40512 4.36661 76 92 103 0.096684 82 1773 79 1270
16590 -8.55572 -1.15465 11.4382 253 254 237 0.261921 81 1765 82 1743 83 1918 85 2105 79 1219 77 1381 76 1368 75 1417 70 545
16589 -3.2812 -0.791529 7.11434 246 254 237 0.861675 2 1678 79 1216 91 319
16585 -0.349626 0.115102 -1.79864 129 128 123 0.373028 1 825 79 819
16584 -0.309656 0.0615825 -2.05398 221 224 217 0.0813595 1 730 79 711
16583 -0.309656 0.0615825 -2.05398 221 224 217 0.0813595 1 729 79 710
16580 -1.42529 0.106135 -0.584744 151 156 151 0.253521 1 699 80 1596 81 1973 79 673 77 756
16577 -0.826948 0.0833359 -0.634874 123 125 104 0.201422 80 722 82 1454 79 625 76 648
16576 -1.46963 0.0873116 0.0374279 54 50 39 0.553386 83 1645 79 612 75 677
16575 -1.53586 0.0608272 -0.585083 89 102 90 0.130121 80 689 79 593
16574 -3.10464 -0.00944174 2.04576 29 35 37 0.161922 83 1518 79 494 77 574
16573 -2.81528 -0.099953 0.846984 71 78 67 0.106685 80 419 81 1295 79 380 77 453 74 432
16572 -3.35178 -0.786842 9.27603 58 64 80 0.262812 84 1417 86 1601 79 258 2 2611 34 2720 45 2920 92 2883 93 2884 56 3077 94 3064
16567 -0.125126 -0.572772 0.515201 252 239 251 0.190699 1 39 80 43 81 1048 79 49 82 962 77 84
16540 -3.24703 -0.572819 6.71939 74 82 78 2.01607 92 501 1 328 79 277
16533 -0.404257 0.115752 -1.90408 126 117 115 0.65728 80 2956 1 2851
16499 -0.294721 0.0280276 -1.88199 80 91 93 0.740961 80 2727 1 2279 79 2311 77 2078 76 1504
16489 -1.67077 0.0768698 -0.992209 216 252 255 0.127868 80 2074 1 2007 79 2027
16488 -1.8405 0.0834021 -0.605543 15 20 29 0.379823 80 2068 1 2003 79 2024 76 663 77 721
16467 -1.37532 0.113888 -1.02611 156 158 152 0.0283382 80 1619 1 1535
16466 -0.293523 0.0674444 -1.8936 52 54 53 0.0957452 80 2406 1 1529 79 1535 77 758
16460 -0.743687 0.0874073 -0.460458 37 28 29 0.113208 80 2058 81 1956 82 1984 1 1482 79 1504 77 1659 76 654 75 673 74 608
16458 -3.13823 -0.0892245 2.06073 23 26 38 0.115951 82 1250 1 1329 79 1341 75 496 71 685
16453 -2.931 -0.519741 0.915608 58 71 90 0.0946848 80 1180 81 1695 1 1129 79 1134 77 172 76 170 75 203
16451 -0.582674 0.114339 -1.96341 251 252 243 0.262856 80 2142 1 849 79 835
16445 -1.30466 0.11717 -1.30199 69 62 62 0.189128 80 1630 1 749 79 754
16423 3.37904 -0.312486 5.28918 108 83 32 0.771014 8 3311 49 2637 50 3541 51 3536 10 3553 53 4190 47 443 9 2836 5 491 6 431 52 3452 11 3393
16419 4.29342 -0.241377 5.9809 17 23 32 1.83831 46 578 7 2013 50 3026 43 2063 9 2979 51 3060 10 3087 52 2949 4 679 46 587 49 1941 10 3100 12 3899 11 3493 52 3563
16418 3.75762 -0.111496 6.13779 77 97 110 1.00105 118 804 48 3584 49 2015 11 3529 53 4000
16404 -0.788769 0.081528 -0.52294 137 144 134 0.382493 83 2151 82 1449 81 1493 85 3016 84 2638
16403 -0.455935 0.107501 -1.47263 43 48 52 1.34556 81 2823 80 2953 1 2835 79 2822 77 2850 76 2638 75 1735 74 700
16402 -1.1808 0.10495 0.154242 111 110 111 0.68407 81 2778 82 2823 80 2949 1 2928 79 2909 77 3211 76 3169 75 3228 74 3175 73 3297 72 3688 71 3398 70 3582 69 3370 68 3143 26 3378 66 3378 24 4006 65 4006 64 3879 23 3879 63 4135 22 4135
16398 -0.467724 0.114597 -1.63177 32 37 43 1.77367 81 2746 80 2656 77 838
16396 -0.550817 0.0926249 -0.572503 122 123 124 1.09335 83 2821 84 3064 80 2388 1 2004 79 2026 77 2203
16393 -0.317461 0.0441682 -0.389647 37 44 50 1.93596 83 2112 80 626 1 575
16389 0.90152 -0.307318 0.75526 56 57 49 1.29957 2 45 80 217
16387 -0.490585 0.109718 -1.61088 126 127 120 0.425839 81 2806 80 2916 1 2743
16385 -2.96584 0.0230662 2.40682 20 14 16 0.361679 81 2683 82 2779 80 2838 1 2808 79 2799
16381 -0.131309 -0.5299 0.486351 252 255 255 0.914972 81 2646 82 2671 80 2794 75 3043 74 2913 73 2901 68 2783 26 2967 66 2967
16380 -0.131119 -0.527787 0.481858 252 255 255 0.656169 81 2645 82 2670 80 2793 74 2914 75 3042 73 2902
16379 -0.605215 0.110788 -1.79618 255 250 241 0.344931 81 2749 80 2784 1 2613 79 2420 77 2262
16378 -0.544636 0.111824 -1.58399 255 255 247 0.36957 81 2745 80 2778 1 2741 79 2609 77 2621 76 2649
16377 -0.544636 0.111824 -1.58399 255 255 247 0.36957 81 2744 80 2777 1 2742 79 2610 77 2622 76 2650
16376 -0.554966 0.107145 -1.58922 253 255 253 0.432345 81 2743 80 2773 1 2600 79 2408 77 2251 76 1698
16374 1.16425 -0.113396 -0.0593467 68 79 72 0.762614 81 2559 80 2708
16373 -1.67101 0.103542 -0.589673 37 35 23 0.157924 81 2620 80 2641 79 2588 1 2575 77 2588
16372 -5.73782 -0.67609 7.53253 29 24 28 0.830663 82 2403 83 2599 84 2766 80 2544 81 2134
16368 -0.275524 0.0539954 -1.74812 16 14 17 0.249531 81 2617 80 2379 1 1469 79 1484
16363 0.502023 -0.0573335 -0.802849 194 230 218 0.0798036 81 2395 80 2268
16362 -0.288006 0.096694 -1.83599 30 32 31 0.182041 81 2499 80 2112 1 1583 79 792
16360 -1.84519 0.0805215 -0.475442 26 35 32 0.422483 81 2260 80 2062 1 1481 79 1503 77 712 75 694 74 637
16357 -3.13822 -0.204932 3.81095 71 87 98 0.0873104 2 3589 80 1949 77 1483
16356 0.506717 -0.0557232 -0.813676 32 14 28 0.172019 81 1780 80 1902
16354 -1.44297 -0.536969 0.72014 82 104 157 0.249668 82 2091 83 2244 80 1809 77 1275 75 1340
16349 0.130053 -0.534704 0.446371 27 27 39 0.249185 81 1659 82 1643 80 1786
16343 -0.428019 0.10516 -1.35767 125 123 119 0.348385 81 1986 80 1621 1 1541 79 733
16341 -0.384342 0.103949 -0.921252 158 152 144 0.939143 82 1997 80 1599 81 1978 83 2490 1 704
16335 -1.85449 0.0576851 -0.47414 66 79 69 0.143268 81 1478 80 1542 77 663
16330 -2.75879 -0.137744 0.785989 16 28 24 0.692676 81 398 80 1366 79 1285
16320 -2.75189 -0.519369 0.750272 61 82 114 0.0731521 81 1686 80 1172 1 1123 79 1125 77 1288 76 157 75 185
16317 0.101677 -0.532092 0.388336 243 254 255 0.173549 82 1638 80 1132 79 54 1 47
16316 -0.108368 -0.573975 0.572364 52 54 74 0.140725 81 1050 82 1636 80 1130 1 1091 79 1096
16315 -0.478609 0.106569 -1.41862 128 130 125 0.0625233 81 1536 80 797
16313 -0.522341 0.101287 -1.17216 215 214 209 0.0532165 82 1493 80 765
16311 -0.82416 0.0907331 -0.652917 24 32 31 0.165546 81 755 82 1467 80 732 1 674 77 723
16310 -0.82416 0.0907331 -0.652917 24 32 31 0.165546 82 1466 80 731 81 754 1 673 77 722
16303 -0.012734 0.000636577 1.0142 115 140 159 0.798636 84 623 80 533 85 615 1 485 79 477 77 1550
16300 -3.19168 -0.13291 2.02473 71 85 104 0.178219 82 1218 83 1413 80 428 1 396 79 387 76 416 75 466 74 433 72 544 70 715
16297 -0.805355 -0.221646 1.18729 75 83 86 0.13964 81 313 82 278 83 317 84 314 80 293
16296 -2.78414 -0.511619 0.791011 198 255 255 0.460542 81 98 80 125 1 1126 79 1130
16295 -2.62723 -0.501393 0.584795 203 243 255 0.277866 81 1082 80 113
16294 -0.127084 -0.470457 0.478528 218 251 242 0.168752 82 1002 80 99 79 106
16293 -1.46351 -0.535017 0.677528 235 245 243 0.317007 82 987 83 1137 80 90 1 88
16292 0.127179 -0.536843 0.526923 227 246 187 0.0475748 82 975 80 55 83 1128
16284 -0.554128 0.106851 -1.59209 255 255 250 0.948653 81 2742 80 2772 1 2599 79 2407 77 2250 76 1697 75 771 74 708 82 2866
16283 -0.699551 0.11238 -1.60677 108 104 108 0.730363 82 2793 81 2701
16281 -1.37442 -0.158636 1.9445 75 68 50 1.22318 34 490 81 2156
16272 -1.44947 -0.155174 0.189616 44 61 73 0.108564 85 3382 81 2760
16266 -0.742339 0.0811206 -0.294111 130 126 122 0.724768 82 2731 83 2893 81 2608 80 2748 1 2564 79 2573 77 2827 76 2595 75 2694 74 2576 73 2345 72 2703 71 2480 70 1912 69 1767 68 1645 26 1742 66 1742 21 923 62 923
16265 -2.96095 -0.187186 3.89795 77 91 105 0.299618 84 2955 81 2571 24 3759 65 3759 60 3192 19 3192
16263 -1.54545 0.102327 -0.625337 50 47 35 0.138731 82 2496 81 2483 80 2396 77 2216 76 2236 79 2378 75 1698 74 1641 73 712 72 804 71 886
16262 -1.52577 0.0984241 -0.585509 20 25 24 0.1737 82 2646 81 2482 80 2639 1 2364 79 2375 77 2586 82 2738 76 2230 75 2326 74 1634 73 1790 72 797 71 881 70 927 69 809
16261 -1.53714 0.0872385 -0.589365 90 91 89 1.32374 82 2638 81 2479 1 2359 77 2209 76 1657 74 652 72 789
16260 -0.708542 0.0839278 -0.419051 31 18 17 0.0925546 82 2490 83 2817 81 2474 80 2375 1 2344 79 2366 77 2195 76 2208 75 2301 74 1604 73 1757 72 1929 71 1877 70 875 69 768 68 790 26 798 66 798 24 913 65 913
16259 -0.860948 0.0635873 -0.715938 53 20 20 0.117078 82 2626 81 2466
16258 -1.14825 0.0335267 0.0945676 58 37 18 0.252919 83 2794 81 2453 76 2570 73 2316 72 2673 71 2460 70 2536 26 1713 66 1713 64 2135 23 2135 63 2199 22 2199 21 858 62 858 61 699 20 699 60 735 19 735 59 833 18 833 58 880 17 880
16257 -3.11586 0.0186351 2.1778 79 89 97 0.0501017 83 2657 81 2452
16256 -0.695064 0.111344 -1.60483 110 114 101 0.497301 82 2518 81 2293 80 2106 79 1582
16255 -0.501578 0.106989 -1.49688 127 119 116 0.583502 82 2653 81 2283 79 755
16254 -0.663058 0.0935873 -0.6662 255 251 254 0.215171 82 2494 83 2823 81 2262 80 2389 1 2006 79 2028 77 2211 76 1659 75 1671 74 628 73 684 72 751
16253 -1.85963 0.0869118 0.370329 58 61 44 0.20666 82 2488 81 2255
16252 -1.17082 0.0714572 0.116156 119 126 120 0.406242 83 2800 81 2245 72 719
16250 -0.12457 -0.495477 0.496391 18 21 20 0.264608 82 2094 83 2542 81 2084 80 2206 1 2157 79 1769 76 1958 75 1328 74 1287 73 1445 72 1645 70 371
16242 -1.55527 0.0711372 -0.621347 35 38 42 1.19428 82 2274 81 1947 76 646
16238 0.127119 0.0430282 -1.04603 238 246 225 0.547059 82 2253 81 1909
16236 -3.10122 -0.264813 3.79403 35 46 58 0.180566 92 3516 81 1812
16232 -1.46008 -0.524948 0.624581 51 68 79 0.674087 82 1649 83 1816 81 1673 1 1732 80 2210 81 2085
16231 -0.11174 -0.518197 0.450596 16 27 21 0.222946 82 2089 83 2242 81 1664 80 1791 1 1718 79 1758 77 1924 76 1951 75 1314 74 1278 73 143 73 144 72 1635 26 328 66 328
16230 -0.669414 0.1084 -1.4755 88 90 89 0.348959 82 2297 81 1542 80 813
16229 -1.54546 0.0786827 -0.619919 104 140 138 1.44151 82 1446 81 1501 79 632 77 719
16228 -1.3791 0.088557 0.106354 69 57 57 0.98327 82 1439 81 1488 80 1562 79 1496 76 1638 21 936 22 2234 63 2234 26 820 66 820 62 936 61 754 20 754 60 783 19 783 59 878 18 878
16226 -1.54843 0.00724826 -0.621013 141 135 135 0.219439 82 2214 81 1371 80 539
16225 2.07881 -0.0175689 2.35008 69 51 25 1.49453 92 2138 81 1367 34 718
16224 -3.0605 -0.135459 2.15029 52 63 90 0.266242 82 1827 83 2005 81 1306 79 388
16222 -2.73124 -0.168603 2.45263 41 44 52 0.195697 82 1810 83 1401 81 1291 80 1388 79 1313 77 1480
16221 -2.99086 -0.243336 3.94818 18 19 23 0.326511 84 2133 81 1285 80 1939 1 385 79 1304 77 2051 75 440 74 1457 73 1630 72 506
16218 -3.38955 -0.631452 6.8085 248 252 255 0.620012 94 2036 81 1217
16217 0.04825 -0.656352 4.53451 73 94 68 0.281147 85 1413 88 1595 91 2393 92 2797 81 1181 93 2798 1 1201 79 1192 77 1358
16216 0.016466 -1.05596 5.67917 254 250 237 0.634832 2 3498 82 1058 91 3337 34 3749 81 1140 92 3803 83 1215 84 1321 85 1360 86 1446 87 1385 88 1512 90 2494 91 1466 92 1715 80 1217 1 1161 79 1151 77 1307 75 1360
16215 -0.275736 -0.351642 0.427055 96 136 116 0.289208 86 2678 81 1122 1 1157 79 1153
16214 -0.128828 -0.470093 0.472871 232 241 242 0.321371 83 1833 81 1084 84 1950
16213 -0.471707 0.110477 -1.64886 72 74 77 0.254559 82 2334 81 877
16205 -3.05798 -0.0274914 2.113 74 82 97 0.152547 82 507 83 1496 84 1612 81 556 79 481
16204 0.29558 0.020449 -0.486318 75 84 69 0.45905 82 1321 84 1618 81 553
16200 -1.75223 -0.625376 7.54132 251 251 238 0.258567 86 1604 90 1774 91 1653 81 344 2 2613 87 1566 92 1952 34 2728 93 1916 45 2922 85 1499 80 321 1 1254 79 267 77 1402 76 295 75 342 74 306 73 343 71 510 69 502 68 526
16197 -0.180749 -0.443592 0.438241 29 40 50 0.0442977 82 87 83 75 81 96
16196 -0.198704 -0.458538 0.444423 249 236 245 0.121718 83 66 84 51 81 89 80 104
16195 -0.214616 -0.464847 0.427759 236 243 246 0.254195 82 77 83 61 81 87 77 131
16194 -1.45362 -0.53183 0.752404 252 253 248 0.295405 82 65 83 53 81 86
16193 -0.193423 -0.481237 0.439557 206 252 221 0.253306 83 55 84 1237 81 81
16187 -0.692024 0.0851707 -1.05552 245 239 229 0.978714 83 3045 82 2882
16186 -1.12958 0.0605244 0.140037 15 15 18 1.23616 87 3723 82 2822 81 2775
16184 -1.78111 0.0431808 0.58884 42 43 47 1.32138 85 3237 82 2613 80 2613 81 2597 82 2726 1 2550 79 2340 77 2155 76 2179
16178 5.42326 0.0576965 9.3346 219 213 179 2.9254 98 871 82 582
16177 5.42326 0.0576965 9.3346 219 213 179 2.9254 98 870 82 581
16176 10.943 -2.49994 11.1918 8 15 8 2.41605 92 67 82 108
16175 -1.71314 -0.0529535 4.8527 34 39 44 1.62311 83 3043 84 3219 82 2878 85 3410 86 3618 81 2841
16174 -0.323642 0.10231 -1.02161 145 157 153 0.46378 83 3022 82 2825 81 2732
16171 -3.2307 -0.0719649 2.58806 14 10 11 1.11567 83 2981 84 3137 82 2772 81 2677
16169 -1.49273 -0.135554 0.179023 255 253 249 0.654757 83 2978 82 2765
16168 -0.649885 0.104531 -0.861935 101 101 97 1.50848 83 2985 82 2741 81 2622 80 2642 1 2579 79 2593 77 2220
16167 -3.17159 -0.0389704 2.64548 75 90 104 0.112627 84 3106 82 2713 80 2831
16164 -0.643217 0.0833261 -0.331809 12 19 11 0.192103 83 2814 84 3001 82 2631 81 2470 80 2627 1 2341 79 2361 77 2568 76 2205 75 2299 74 2204 73 1752 72 1926 71 1867 70 1907 69 755 68 786 26 792 66 792 24 914 65 914
16163 -0.660677 0.0729026 -0.332219 126 127 111 0.665469 84 3116 82 2627 80 2622 1 2558 79 2566 77 2561 76 2589 75 2295 74 2196
16162 -1.19396 0.0784325 0.0834237 11 11 13 0.254952 83 2808 82 2625 81 2468 84 2998 1 2557 79 2565 77 2560 75 2297 73 2344 72 1928 70 2560 69 1765 68 1648 58 922 17 922
16161 -3.4071 -0.16039 2.95043 76 82 94 0.638668 83 2773 84 3038 82 2589
16160 -0.793495 0.0793342 -0.52477 138 141 137 0.368651 83 2816 82 2489 80 2374 1 2340 79 2359 77 2192 76 2204 75 1650 74 1602 73 1755 72 730 71 824
16159 -0.814583 0.0609061 -0.641317 48 18 16 0.376415 83 2806 82 2485 81 2247
16158 1.05308 0.0239855 -0.118892 13 19 15 0.283969 83 2655 82 2463
16153 -0.793527 0.0937722 -0.737581 254 251 254 0.112108 83 2687 82 2282 81 1967 80 2072 1 1504 79 1517 77 740 76 682 75 704
16145 0.413432 0.0464712 -0.61057 244 246 227 0.0996123 83 2120 82 1953
16143 -2.57387 0.0591339 1.02858 51 52 38 0.0355587 83 2122 82 1944
16140 -0.620333 -0.113494 1.26436 85 86 90 0.093519 83 1992 84 2530 90 3663 82 1814 81 1819 80 1937 1 1299 79 1306 77 1473 76 1452 75 1501 74 1449 70 661 68 613 26 625 66 625 24 753 65 753
16138 -3.14237 -0.270736 3.89102 37 47 56 0.346258 85 2181 82 1790 2 3197 91 3045 34 3420 92 3509 81 1811 80 1931 1 1862 79 1891 77 2046 76 1443 75 1498 73 1618
16137 -1.5111 -0.105525 0.246015 104 121 129 0.703893 83 1959 82 1778
16136 -1.09643 -0.889747 5.06878 29 34 27 0.377515 83 1885 87 2783 82 1699 81 1156 80 1236 79 1164 79 1807 77 1327 73 228
16135 -0.648351 -0.839308 4.367 32 40 27 0.336421 45 3462 82 1693 1 1762 83 1880 76 1987 75 2094 73 1490 72 1686 71 1636 69 1505 68 374 26 391 66 391 24 495 65 495 64 550 23 550 21 493 62 493
16134 -0.229315 -0.346065 0.454348 21 21 27 0.212058 85 2523 82 1678 80 1825
16133 -0.27548 -0.351205 0.425599 167 128 123 0.310111 86 2677 82 1677 81 1121 80 1212 1 1156 79 1152
16131 -0.0292195 -0.280521 -0.427619 21 27 16 0.405796 83 1830 82 1660 81 1692
16130 -0.202373 -0.475998 0.444849 75 59 62 0.204222 83 1829 84 1942 82 1657 81 1680 80 1807 1 1113 79 1117 77 1274 76 1285 75 1330 74 148 73 1449
16129 -0.202373 -0.475998 0.444849 75 59 62 0.204222 83 1828 84 1941 82 1656 81 1679 80 1808 1 1112 79 1116 77 1273 76 1284 75 1329 74 149 73 1450
16128 -0.463025 0.107705 -1.46087 39 47 50 0.382714 83 2708 82 1529
16127 -0.451793 0.107369 -1.3819 53 53 55 0.118201 83 2702 82 1510
16126 -0.451793 0.107369 -1.3819 53 53 55 0.118201 83 2703 82 1509
16125 -0.401709 0.105383 -1.30041 123 117 106 0.222409 83 2505 82 1500
16124 -0.39749 0.0962911 -0.694349 252 250 221 0.176972 83 2163 84 2648 82 1475
16123 -1.46536 0.104536 -0.315922 75 76 72 0.465465 83 2160 82 1469 81 765 1 685
16122 -0.847018 0.0867541 -0.734814 122 120 108 0.207141 83 1665 82 1465 81 753
16121 -0.755927 0.0919586 -0.572685 254 250 245 0.0952709 83 2158 82 1462 81 745 80 730
16119 -0.635773 0.087921 -0.318968 17 22 26 0.163655 84 2312 82 1448 81 1492 80 714
16118 -1.53444 0.0909217 0.140462 31 38 35 0.19495 83 1647 82 1438 1 1474 79 1495 76 1641
16116 0.292395 0.0504408 -0.534793 59 63 49 0.158393 83 1609 82 1402 81 658
16113 -1.11702 -0.00853992 0.1528 45 69 71 0.150055 84 2195 82 1275 79 1367
16112 -2.7452 -0.133449 2.47326 28 49 86 0.409267 84 1521 82 1227 80 438 1 397 1 398 77 468
16111 -0.500813 -0.727878 4.5195 103 106 64 0.303411 34 2585 83 1253 82 1089 45 2793 93 2771 94 2947 56 2955 95 3351 81 1172 80 1253 1 1194 79 1178 77 1349 71 421 70 467 67 2249
16110 -0.498269 -0.737248 4.59668 103 106 64 0.370038 2 2507 83 1252 84 2014 85 2064 86 2221 87 2268 82 1088 34 2584 45 2792 92 2778 93 2770 94 2946 81 1171 80 1252 1 1195 79 1177 77 1348 76 1341 75 1383 74 1351 73 1510 72 1701 71 422 70 466 69 414 68 428 26 1520 66 1520 64 597 23 597 63 593 22 593 21 540 62 540
16109 -0.188049 -0.45513 0.438348 37 38 33 0.199154 83 1835 84 1952 82 1008 81 1087 80 107 1 1115
16108 -1.50047 -0.522191 0.710479 253 253 253 0.54287 84 1939 82 995 81 1682 80 102 79 110 77 1282 74 2008
16107 -0.634006 0.0963863 -0.977583 119 122 115 0.0642487 83 1685 82 753
16106 -0.736781 0.0966004 -0.771785 127 128 118 0.511503 83 1674 82 742
16105 -0.202275 0.0890036 -0.751638 57 58 60 0.0706582 83 805 82 723
16104 -0.789666 0.089791 -0.521832 13 30 37 0.0725149 83 1661 82 715 81 736 1 663
16103 -1.34924 0.0971043 -0.0781317 99 97 108 0.293247 83 773 82 705
16102 -0.800263 0.0799102 -0.563342 65 32 27 0.108375 83 1653 82 702
16101 -2.06611 0.0871355 0.348583 60 66 52 0.199031 83 742 82 683 81 720
16100 -1.83828 0.0738554 0.331586 54 66 46 0.305549 83 1625 82 662 80 691
16099 1.08663 0.0320984 -0.0866326 11 22 8 0.0870118 83 1554 82 595
16098 2.23076 -0.037073 2.55281 173 215 240 1.29872 91 2585 82 509 90 1924
16097 -3.08805 -0.0700946 2.10591 45 60 63 0.340014 83 523 84 1552 82 460 81 511 1 442 74 476
16096 -3.09303 -0.614266 13.345 59 62 45 0.353739 84 477 87 1660 90 597 92 2041 82 409 88 545 45 2073 93 2019 94 2161 81 442 77 438
16094 -2.73613 -0.213219 2.43947 58 65 76 0.138332 83 398 84 423 82 360 81 409 80 381 1 364 79 339 77 414
16093 -0.795988 -0.195158 1.20312 13 21 23 0.132601 84 1404 85 1478 82 304
16092 -0.804853 -0.23244 1.36407 16 23 33 0.856701 84 1389 85 277 82 285 81 319 79 259 1 1241 83 1933 76 1387 81 2128 73 347 70 2428 69 2280 61 571 21 684 62 684 20 571 15 730 55 730
16091 -1.12552 -0.863515 5.04132 119 197 193 0.143284 88 1537 82 190 81 194 77 228 75 238
16090 -0.18609 -0.435286 0.488058 240 251 253 0.367074 83 1174 84 1262 82 97 85 1294 81 112
16081 -1.18959 0.108191 1.03658 50 22 8 1.38852 85 3246 83 2807
16079 -3.04518 -0.507163 9.45298 212 171 121 0.647863 91 3778 83 2620 82 2421 81 2411 80 2293
16078 -0.817119 0.0741273 -0.627321 72 82 89 0.700665 84 2315 83 2149 82 1441
16076 -5.03128 -0.827084 9.51513 243 251 254 1.91279 94 501 83 1941
16072 -0.383288 0.106193 -1.23053 91 91 89 0.707423 84 2365 83 907
16071 -0.393013 0.100629 -1.23772 114 112 105 1.06689 84 2362 83 901
16070 -1.10387 0.110748 0.178431 61 67 88 1.39692 87 1953 83 782
16066 -1.23571 0.0545499 0.14081 17 19 19 0.72559 84 3196 83 3004 82 2865 81 2816 77 3254 75 3286 76 3195 74 3221 73 3392 72 3775 71 3515 70 3698 69 3424 68 3224 26 3446 66 3446 24 4107 65 4107 64 4012 23 4012 63 4261 22 4261 21 3777 62 3777 61 3561 20 3561 60 3793 19 3793 59 4075 18 4075 58 4340 17 4340 16 4333 57 4333 15 4409 55 4409 13 4524 54 4524
16065 -1.43504 -0.152617 0.158826 39 48 49 0.372075 84 3159 83 2975
16064 -0.57182 0.086938 -0.251122 37 43 51 0.717605 84 3150 85 3375 83 2960 82 2735 81 2693 80 2750 1 2565 79 2574 77 2830 76 2600 75 2695 74 2202 73 2343 72 2702 71 1868 70 1908 69 1760 68 780
16062 -0.861091 0.0882992 -0.72165 21 19 25 0.171618 84 3124 83 2901 82 2644 81 2615 80 2634 1 2568 79 2578 77 2577 76 2608 75 2700 74 2220 73 2356 72 2710 71 1890 70 1927 69 1774 68 811 26 814 66 814 24 931 65 931
16061 -0.596986 0.087007 -0.322901 47 43 58 0.554287 84 3120 83 2897 85 3353 82 2633 81 2473 80 2377 1 2346 79 2367 77 2570 76 2210 75 2302 74 2205 73 1759 72 1930 71 821 69 761
16055 -1.39178 0.0754812 0.189173 78 65 57 0.525142 84 2625 83 2456 82 1966
16054 -3.68292 -0.279498 3.48221 24 31 38 0.378276 84 2774 85 2931 83 2341 81 1801 77 1449 76 2078 80 2291 74 2122 73 2270 72 2610 71 2397 70 2460 68 2176 69 2318 26 2303 66 2303 24 2906 65 2906 64 2057 23 2057
16048 -1.76644 0.0796479 0.582642 47 42 39 0.167779 84 2304 83 2139 82 1418 81 703 80 1543 1 627 79 1470 77 681 76 617 75 649
16046 -3.74286 -0.223863 3.57408 15 22 30 0.327997 84 2536 85 2936 83 1988 82 1806 81 1824
16045 -3.37671 -0.341282 3.88554 0 0 0 0.447529 84 2083 88 2982
16044 -0.443056 -0.722186 4.55485 80 99 80 0.411915 2 2512 90 2526 91 2378 83 1897 87 1450 88 1565 93 2776 82 1714 81 1738 80 1854 77 1350 75 259 74 242 73 255 72 330 68 437 26 451 66 451 63 597 22 597
16043 -0.146537 -0.321708 0.581072 14 21 13 0.166051 84 2462 86 2687 83 1873
16042 -0.251425 -0.379412 0.38744 255 249 233 0.152001 84 1961 85 2514 83 1849 81 1108 80 1190 79 1142 76 180
16041 -1.49868 -0.535445 0.781298 255 253 255 0.506136 84 2710 83 1825 81 88 80 100 1 100 79 111
